# .PCD v.7 - Point Cloud Data file format
VERSION .7
FIELDS x y z rgb
SIZE 4 4 4 4
TYPE F F F F
COUNT 1 1 1 1
WIDTH 996
HEIGHT 1
POINTS 996
DATA ascii
219.408356 -450.305969 3595.448975 6.177826e-39
220.886932 -449.506775 3589.067627 6.085630e-39
222.341644 -448.672821 3582.408936 6.177826e-39
223.771912 -447.803802 3575.470459 6.177826e-39
225.134399 -446.814606 3567.572266 6.177826e-39
226.243973 -445.343811 3555.828613 6.177826e-39
227.341461 -443.873199 3544.086670 6.177826e-39
228.422455 -442.394379 3532.279053 6.177826e-39
229.490845 -440.914917 3520.466309 6.270022e-39
197.905167 -454.925598 3647.491699 6.085630e-39
199.672546 -454.627319 3645.100098 5.993435e-39
201.464432 -454.389923 3643.196777 5.993435e-39
203.254349 -454.152527 3641.293457 5.993435e-39
204.997940 -453.817017 3638.603271 5.993435e-39
206.738739 -453.481445 3635.912842 6.085630e-39
208.472961 -453.137726 3633.156982 6.085630e-39
210.202621 -452.790375 3630.371826 6.085630e-39
211.851562 -452.276825 3626.254639 6.085630e-39
213.378357 -451.513947 3620.137695 6.085630e-39
214.907745 -450.769806 3614.171387 6.085630e-39
216.511765 -450.193787 3609.552979 6.085630e-39
218.111008 -449.617828 3604.935059 6.177826e-39
219.631393 -448.890503 3599.103760 6.177826e-39
221.126984 -448.125275 3592.968018 6.177826e-39
222.590851 -447.309113 3586.424316 6.085630e-39
224.022232 -446.441711 3579.469971 6.177826e-39
225.382523 -445.448242 3571.504395 6.085630e-39
226.476517 -443.948914 3559.483154 6.177826e-39
227.558060 -442.449799 3547.463379 6.177826e-39
228.637756 -440.971161 3535.608154 6.177826e-39
229.706390 -439.495056 3523.772949 6.270022e-39
198.123322 -453.526581 3651.512207 6.085630e-39
199.900711 -453.247498 3649.265381 6.085630e-39
201.673965 -452.964386 3646.985840 6.085630e-39
203.444839 -452.681244 3644.706055 6.177826e-39
205.189957 -452.346527 3642.011230 6.177826e-39
206.932205 -452.011688 3639.315430 6.085630e-39
208.653091 -451.636688 3636.296143 6.085630e-39
210.362732 -451.244293 3633.136963 6.085630e-39
212.008362 -450.722839 3628.938232 6.085630e-39
213.557602 -450.007446 3623.178467 6.085630e-39
215.103333 -449.297272 3617.460693 6.085630e-39
216.664902 -448.632233 3612.105957 6.085630e-39
218.220978 -447.967346 3606.752686 6.085630e-39
219.733047 -447.224213 3600.769531 6.177826e-39
221.229126 -446.461365 3594.627686 6.177826e-39
222.693497 -445.647919 3588.078125 6.177826e-39
224.125336 -444.783356 3581.117432 6.177826e-39
225.486023 -443.793091 3573.144287 6.177826e-39
226.580154 -442.298676 3561.112061 6.270022e-39
227.661850 -440.804413 3549.081299 6.177826e-39
228.741684 -439.330627 3537.215332 6.270022e-39
229.810471 -437.859375 3525.369629 6.270022e-39
230.808807 -436.278198 3512.639160 6.270022e-39
231.755035 -434.624207 3499.322021 6.270022e-39
198.341431 -452.123322 3655.532471 6.085630e-39
200.128845 -451.863281 3653.429932 5.993435e-39
201.883469 -451.534821 3650.774414 5.993435e-39
203.635330 -451.206390 3648.118652 6.085630e-39
205.381912 -450.872406 3645.418457 6.177826e-39
207.125671 -450.538391 3642.718018 6.085630e-39
208.833191 -450.132355 3639.435059 6.085630e-39
210.522842 -449.695404 3635.902100 6.085630e-39
212.165131 -449.165985 3631.621826 6.085630e-39
213.736847 -448.497894 3626.219727 6.085630e-39
215.298889 -447.821320 3620.749512 6.085630e-39
216.818039 -447.068024 3614.659180 6.085630e-39
218.330917 -446.314880 3608.569824 5.993435e-39
219.834686 -445.556122 3602.435059 6.085630e-39
221.331299 -444.795807 3596.287842 6.177826e-39
222.796143 -443.984955 3589.731934 6.177826e-39
224.228439 -443.123322 3582.765137 6.177826e-39
225.589523 -442.136261 3574.784424 6.270022e-39
226.683792 -440.646667 3562.740967 6.270022e-39
227.765656 -439.157379 3550.699463 6.270022e-39
228.845612 -437.688385 3538.822510 6.270022e-39
229.914551 -436.221985 3526.966064 6.270022e-39
230.912964 -434.646027 3514.224121 6.270022e-39
231.859192 -432.997406 3500.894775 6.270022e-39
232.812332 -431.387299 3487.876465 6.270022e-39
189.118820 -450.912781 3661.151367 6.085630e-39
191.197021 -451.320465 3664.461426 6.085630e-39
193.093857 -451.296173 3664.264404 6.085630e-39
194.969711 -451.223816 3663.676758 5.993435e-39
196.784637 -451.013214 3661.966797 5.901239e-39
198.557190 -450.710480 3659.508789 6.085630e-39
200.328217 -450.410065 3657.069580 5.993435e-39
202.099152 -450.115112 3654.674805 5.993435e-39
203.867584 -449.820129 3652.279541 6.085630e-39
205.598053 -449.447601 3649.254883 6.085630e-39
207.325363 -449.075043 3646.229980 6.085630e-39
209.013977 -448.626221 3642.585693 6.085630e-39
210.683426 -448.144653 3638.675781 6.085630e-39
212.307709 -447.576416 3634.062256 6.085630e-39
213.864838 -446.877960 3628.391113 6.177826e-39
215.414795 -446.176910 3622.698730 6.177826e-39
216.947021 -445.451538 3616.809326 6.085630e-39
218.473114 -444.726227 3610.920166 6.085630e-39
219.980164 -443.974792 3604.818848 6.085630e-39
221.477524 -443.216705 3598.663574 6.177826e-39
222.924057 -442.370453 3591.792725 6.177826e-39
224.318466 -441.435760 3584.203613 6.177826e-39
225.656448 -440.406311 3575.844971 6.270022e-39
226.789261 -438.996582 3564.398682 6.270022e-39
227.910278 -437.587036 3552.954102 6.270022e-39
229.011688 -436.162903 3541.390869 6.362217e-39
230.100357 -434.737366 3529.816406 6.270022e-39
231.106781 -433.180328 3517.174072 6.177826e-39
232.053101 -431.535919 3503.822510 6.270022e-39
233.012054 -429.940491 3490.868652 6.270022e-39
234.020355 -428.460144 3478.848877 6.362217e-39
235.016052 -426.979584 3466.827637 6.362217e-39
183.134811 -448.352356 3655.811035 6.085630e-39
185.221069 -448.797089 3659.437500 5.993435e-39
187.304138 -449.225067 3662.927246 5.993435e-39
189.362640 -449.586151 3665.871338 5.993435e-39
191.424194 -449.947205 3668.815430 5.993435e-39
193.339081 -449.959778 3668.917725 6.085630e-39
195.237274 -449.933624 3668.704590 6.085630e-39
197.038498 -449.686676 3666.691162 5.993435e-39
198.772522 -449.292572 3663.477539 6.085630e-39
200.522690 -448.942108 3660.619873 6.085630e-39
202.315872 -448.693604 3658.593750 6.085630e-39
204.106918 -448.445038 3656.567139 6.177826e-39
205.818283 -448.027679 3653.163818 6.085630e-39
207.526062 -447.610199 3649.759766 6.085630e-39
209.194885 -447.117004 3645.738281 6.085630e-39
210.844162 -446.591278 3641.451660 6.085630e-39
212.447891 -445.979309 3636.461670 6.177826e-39
213.984146 -445.237823 3630.415527 6.177826e-39
215.517258 -444.502747 3624.421875 6.177826e-39
217.071869 -443.824371 3618.890625 6.085630e-39
218.620773 -443.146179 3613.360596 6.085630e-39
220.133041 -442.405884 3607.324219 6.177826e-39
221.631165 -441.649933 3601.160400 6.270022e-39
223.056198 -440.762177 3593.921875 6.270022e-39
224.406296 -439.742432 3585.606934 6.270022e-39
225.717178 -438.663269 3576.807373 6.270022e-39
226.895035 -437.345306 3566.061035 6.270022e-39
228.061798 -436.027557 3555.316162 6.177826e-39
229.188293 -434.654633 3544.121582 6.270022e-39
230.299973 -433.275787 3532.878662 6.362217e-39
231.315765 -431.739807 3520.354492 6.270022e-39
232.262131 -430.099396 3506.978760 6.177826e-39
233.227921 -428.520264 3494.102539 6.270022e-39
234.259079 -427.084717 3482.397461 6.362217e-39
235.277954 -425.649017 3470.690918 6.362217e-39
181.267105 -446.535858 3656.517334 5.993435e-39
183.378586 -447.043884 3660.677246 5.993435e-39
185.476074 -447.507690 3664.475342 6.085630e-39
187.564987 -447.941620 3668.028564 5.993435e-39
189.607117 -448.256195 3670.604492 5.993435e-39
191.651917 -448.570709 3673.179932 5.993435e-39
193.577255 -448.602173 3673.437500 5.993435e-39
195.489166 -448.602203 3673.437744 6.085630e-39
197.288651 -448.346771 3671.346191 6.085630e-39
199.010315 -447.921051 3667.860107 6.085630e-39
200.753067 -447.550476 3664.825439 6.177826e-39
202.550980 -447.308655 3662.845459 6.177826e-39
204.346848 -447.066864 3660.865479 6.177826e-39
206.039017 -446.604797 3657.081787 6.085630e-39
207.727219 -446.142639 3653.297363 6.085630e-39
209.382538 -445.618896 3649.008545 6.177826e-39
211.020844 -445.068665 3644.502930 6.177826e-39
212.617081 -444.440338 3639.357910 6.177826e-39
214.151321 -443.694641 3633.251465 6.177826e-39
215.681976 -442.954651 3627.191895 6.177826e-39
217.231094 -442.265106 3621.545410 6.177826e-39
218.774399 -441.575623 3615.899658 6.085630e-39
220.278534 -440.819550 3609.708252 6.177826e-39
221.767776 -440.046722 3603.379883 6.270022e-39
223.180710 -439.136688 3595.927979 6.270022e-39
224.515366 -438.089081 3587.349609 6.270022e-39
225.818787 -436.998291 3578.417480 6.270022e-39
227.022491 -435.733917 3568.064209 6.270022e-39
228.215515 -434.469788 3557.712646 6.177826e-39
229.373901 -433.160583 3546.991943 6.177826e-39
230.518585 -431.846558 3536.232178 6.270022e-39
231.553604 -430.349609 3523.974121 6.270022e-39
232.509857 -428.730957 3510.719238 6.177826e-39
233.486588 -427.174957 3497.977783 6.270022e-39
234.530899 -425.765717 3486.438232 6.362217e-39
235.563126 -424.356384 3474.897705 6.362217e-39
179.352722 -444.604797 3656.287354 6.085630e-39
181.480377 -445.155945 3660.819580 5.993435e-39
183.603989 -445.685852 3665.177246 5.901239e-39
185.723389 -446.194641 3669.361572 5.993435e-39
187.826859 -446.655273 3673.149658 5.993435e-39
189.852493 -446.923370 3675.354492 6.085630e-39
191.880402 -447.191437 3677.558838 6.085630e-39
193.806061 -447.218292 3677.779541 6.085630e-39
195.720215 -447.218292 3677.779541 6.085630e-39
197.533844 -446.990814 3675.908936 6.085630e-39
199.277863 -446.611694 3672.791260 5.901239e-39
201.031067 -446.260162 3669.900391 6.177826e-39
202.810532 -445.973053 3667.539062 6.177826e-39
204.587540 -445.685883 3665.177490 6.177826e-39
206.260391 -445.179199 3661.010986 6.085630e-39
207.928879 -444.672516 3656.843994 6.177826e-39
209.579117 -444.136322 3652.434570 6.177826e-39
211.218735 -443.587433 3647.920654 6.177826e-39
212.824799 -442.978546 3642.913330 6.177826e-39
214.381958 -442.279480 3637.164551 6.085630e-39
215.929337 -441.572662 3631.351807 6.085630e-39
217.435928 -440.795441 3624.960205 6.177826e-39
218.935928 -440.018311 3618.569336 6.177826e-39
220.414230 -439.211212 3611.931885 6.177826e-39
221.881775 -438.396515 3605.232178 6.177826e-39
223.294983 -437.489014 3597.769287 6.177826e-39
224.652557 -436.488556 3589.541748 6.177826e-39
225.974670 -435.436218 3580.887695 6.270022e-39
227.178757 -434.175507 3570.520264 6.177826e-39
228.372116 -432.914978 3560.154053 6.177826e-39
229.571503 -431.686066 3550.047607 6.177826e-39
230.762375 -430.460876 3539.971924 6.270022e-39
231.829666 -429.026367 3528.175293 6.177826e-39
232.808899 -427.452789 3515.234375 6.177826e-39
233.802002 -425.928955 3502.703125 6.270022e-39
234.846695 -424.522003 3491.132812 6.362217e-39
235.879257 -423.114868 3479.561035 6.454413e-39
236.591766 -421.159454 3463.480225 6.362217e-39
237.287354 -419.203735 3447.396973 6.270022e-39
179.563232 -443.221466 3660.578857 6.085630e-39
181.693649 -443.771515 3665.121582 5.993435e-39
183.829376 -444.322968 3669.676270 5.901239e-39
185.970474 -444.876007 3674.243652 5.993435e-39
188.088440 -445.362915 3678.265381 5.993435e-39
190.097778 -445.585449 3680.103027 6.085630e-39
192.109039 -445.807983 3681.941162 5.993435e-39
194.034988 -445.830109 3682.123779 6.085630e-39
195.951324 -445.829956 3682.122314 6.085630e-39
197.778961 -445.629883 3680.470215 6.085630e-39
199.545212 -445.296722 3677.718506 5.901239e-39
201.308716 -444.963837 3674.968994 6.085630e-39
203.069839 -444.631927 3672.228027 6.177826e-39
204.828064 -444.300018 3669.486572 6.177826e-39
206.481674 -443.749359 3664.938721 6.177826e-39
208.130524 -443.198608 3660.390137 6.177826e-39
209.775772 -442.650330 3655.861816 6.177826e-39
211.416748 -442.102936 3651.340820 6.085630e-39
213.032623 -441.513245 3646.470703 6.085630e-39
214.612427 -440.859894 3641.074707 6.085630e-39
216.176346 -440.185638 3635.505859 6.177826e-39
217.640640 -439.321991 3628.373047 6.177826e-39
219.097595 -438.458527 3621.241455 6.177826e-39
220.550095 -437.600891 3614.158447 6.177826e-39
221.995941 -436.744751 3607.087402 6.177826e-39
223.409531 -435.839996 3599.614990 6.177826e-39
224.790131 -434.886444 3591.739746 6.177826e-39
226.130951 -433.872345 3583.364258 6.177826e-39
227.335327 -432.615143 3572.980957 6.270022e-39
228.528992 -431.358154 3562.599365 6.270022e-39
229.769165 -430.208466 3553.104248 6.270022e-39
231.006027 -429.071014 3543.709717 6.270022e-39
232.105530 -427.698395 3532.373535 6.270022e-39
233.107620 -426.169342 3519.744873 6.270022e-39
234.117020 -424.677368 3507.422607 6.362217e-39
235.162231 -423.272949 3495.823242 6.362217e-39
236.195206 -421.868195 3484.221680 6.454413e-39
236.952164 -419.995667 3468.756348 6.362217e-39
237.692886 -418.122864 3453.288818 6.270022e-39
179.774948 -441.836578 3664.894775 5.993435e-39
181.908127 -442.385529 3669.447998 5.993435e-39
184.037125 -442.913086 3673.823730 5.993435e-39
186.161743 -443.419250 3678.022461 5.993435e-39
188.274399 -443.886932 3681.901611 5.993435e-39
190.325150 -444.200775 3684.504883 5.993435e-39
192.378616 -444.514587 3687.107666 5.993435e-39
194.293198 -444.504456 3687.023926 6.085630e-39
196.191818 -444.458374 3686.641602 5.993435e-39
198.001175 -444.212891 3684.605469 5.993435e-39
199.748627 -443.834595 3681.467529 5.993435e-39
201.499237 -443.470428 3678.447021 6.085630e-39
203.261856 -443.139343 3675.700684 6.177826e-39
205.021622 -442.808228 3672.954102 6.177826e-39
206.676544 -442.258881 3668.397461 6.085630e-39
208.326721 -441.709534 3663.840820 6.177826e-39
209.988281 -441.194061 3659.565430 6.177826e-39
211.652328 -440.693024 3655.409424 6.085630e-39
213.265488 -440.095917 3650.456543 6.085630e-39
214.802872 -439.354401 3644.305664 6.085630e-39
216.330215 -438.605438 3638.093506 6.085630e-39
217.817322 -437.788635 3631.318359 6.177826e-39
219.297409 -436.971954 3624.543945 6.177826e-39
220.737595 -436.090302 3617.231201 6.177826e-39
222.161835 -435.192352 3609.782715 6.177826e-39
223.587143 -434.311493 3602.476562 6.177826e-39
225.013687 -433.447723 3595.311768 6.177826e-39
226.387421 -432.497284 3587.428223 6.270022e-39
227.569748 -431.199738 3576.665283 6.362217e-39
228.740921 -429.902283 3565.903320 6.362217e-39
229.979401 -428.751160 3556.355225 6.270022e-39
231.216812 -427.616455 3546.943359 6.177826e-39
232.316635 -426.247284 3535.586426 6.270022e-39
233.318878 -424.722015 3522.934814 6.270022e-39
234.335312 -423.246124 3510.692871 6.362217e-39
235.403687 -421.886230 3499.412842 6.362217e-39
236.460220 -420.526123 3488.131104 6.454413e-39
237.216858 -418.657471 3472.631104 6.362217e-39
237.957230 -416.788544 3457.129150 6.362217e-39
238.744766 -415.029694 3442.540039 6.362217e-39
179.986649 -440.447174 3669.210449 5.993435e-39
182.122604 -440.995026 3673.774414 5.993435e-39
184.244888 -441.498810 3677.971191 6.085630e-39
186.352997 -441.958527 3681.801025 5.993435e-39
188.460342 -442.407135 3685.538086 5.901239e-39
190.552521 -442.811462 3688.906250 5.993435e-39
192.648193 -443.215759 3692.274414 6.085630e-39
194.551437 -443.173706 3691.924072 5.993435e-39
196.432312 -443.082062 3691.160645 5.993435e-39
198.223404 -442.791595 3688.740967 5.993435e-39
199.952103 -442.368652 3685.217529 5.993435e-39
201.689743 -441.973419 3681.924805 6.085630e-39
203.453888 -441.643127 3679.173340 6.177826e-39
205.215179 -441.312805 3676.421631 6.177826e-39
206.871445 -440.764862 3671.856689 6.085630e-39
208.522903 -440.216766 3667.291016 6.085630e-39
210.200790 -439.733948 3663.268555 6.085630e-39
211.887894 -439.278900 3659.477783 6.085630e-39
213.498352 -438.674438 3654.442383 6.085630e-39
214.993332 -437.845551 3647.537109 6.085630e-39
216.484100 -437.022614 3640.681641 6.085630e-39
217.994003 -436.252258 3634.263916 6.085630e-39
219.497238 -435.481964 3627.846680 6.177826e-39
220.925079 -434.576477 3620.303467 6.177826e-39
222.327682 -433.637024 3612.477539 6.177826e-39
223.764755 -432.780060 3605.338379 6.177826e-39
225.237213 -432.005249 3598.883545 6.177826e-39
226.643906 -431.118042 3591.492676 6.270022e-39
227.804169 -429.780457 3580.349609 6.270022e-39
228.952896 -428.442993 3569.207764 6.270022e-39
230.189621 -427.290436 3559.605957 6.270022e-39
231.427628 -426.158630 3550.177246 6.177826e-39
232.527756 -424.792816 3538.799316 6.270022e-39
233.530151 -423.271362 3526.124756 6.270022e-39
234.553558 -421.811432 3513.962646 6.362217e-39
235.645157 -420.495758 3503.002197 6.362217e-39
236.725250 -419.179932 3492.040527 6.454413e-39
237.481567 -417.315216 3476.506104 6.454413e-39
238.221558 -415.450226 3460.969482 6.454413e-39
239.056458 -413.777496 3447.034424 6.454413e-39
239.924591 -412.186768 3433.782715 6.454413e-39
180.257141 -439.196533 3674.724609 5.993435e-39
182.407547 -439.769958 3679.522217 5.901239e-39
184.534973 -440.276642 3683.761719 6.085630e-39
186.638626 -440.716736 3687.444092 6.085630e-39
188.744003 -441.151917 3691.085205 5.993435e-39
190.844650 -441.567444 3694.561768 5.993435e-39
192.948929 -441.982971 3698.038330 5.993435e-39
194.858566 -441.948822 3697.752686 5.993435e-39
196.745651 -441.864655 3697.048584 5.993435e-39
198.528442 -441.550201 3694.417480 5.993435e-39
200.238815 -441.082245 3690.502197 6.085630e-39
201.960464 -440.647827 3686.867188 6.085630e-39
203.714615 -440.291718 3683.887939 6.085630e-39
205.465637 -439.935638 3680.908447 6.085630e-39
207.123581 -439.388672 3676.332275 6.085630e-39
208.776779 -438.841705 3671.755859 6.085630e-39
210.445267 -438.336578 3667.529297 6.085630e-39
212.117981 -437.849213 3663.451660 6.085630e-39
213.707809 -437.200989 3658.027832 6.085630e-39
215.172760 -436.310944 3650.581055 5.993435e-39
216.635757 -435.432617 3643.231934 6.085630e-39
218.142929 -434.657501 3636.746826 6.085630e-39
219.643387 -433.882477 3630.262207 6.177826e-39
221.074005 -432.983887 3622.743896 6.177826e-39
222.480789 -432.054199 3614.965332 6.177826e-39
223.916794 -431.196381 3607.787842 6.177826e-39
225.382797 -430.410156 3601.209473 6.177826e-39
226.787582 -429.520935 3593.769531 6.270022e-39
227.964859 -428.218872 3582.875244 6.270022e-39
229.130875 -426.916962 3571.982422 6.270022e-39
230.381699 -425.792755 3562.576172 6.270022e-39
231.633560 -424.688446 3553.336426 6.270022e-39
232.747299 -423.350372 3542.140869 6.270022e-39
233.763260 -421.856812 3529.644531 6.270022e-39
234.795258 -420.415314 3517.583496 6.270022e-39
235.883530 -419.096100 3506.545898 6.270022e-39
236.960220 -417.776764 3495.506836 6.362217e-39
237.756042 -415.986053 3480.524170 6.454413e-39
238.536118 -414.195129 3465.539551 6.454413e-39
239.384644 -412.549011 3451.766602 6.454413e-39
240.254959 -410.964661 3438.510742 6.454413e-39
169.897675 -435.243164 3657.574463 5.809044e-39
171.984909 -435.708252 3661.482910 5.809044e-39
174.082306 -436.188629 3665.520020 5.809044e-39
176.239700 -436.807312 3670.718994 5.901239e-39
178.402496 -437.425934 3675.917725 5.809044e-39
180.570526 -438.044220 3681.113281 5.809044e-39
182.743881 -438.662231 3686.306885 5.716848e-39
184.885132 -439.191162 3690.751709 5.993435e-39
186.993118 -439.631012 3694.447998 6.085630e-39
189.098892 -440.056763 3698.025635 6.085630e-39
191.184067 -440.426422 3701.132324 5.993435e-39
193.272430 -440.796051 3704.238281 5.993435e-39
195.201416 -440.798462 3704.258545 5.993435e-39
197.112152 -440.760010 3703.935547 6.085630e-39
198.893967 -440.436768 3701.219238 6.085630e-39
200.586349 -439.923645 3696.907227 6.085630e-39
202.289734 -439.444153 3692.877686 6.085630e-39
204.025436 -439.043304 3689.509033 6.085630e-39
205.757629 -438.642334 3686.139648 6.085630e-39
207.417587 -438.096252 3681.550537 6.085630e-39
209.072739 -437.550110 3676.960938 6.085630e-39
210.713104 -436.983185 3672.197021 5.993435e-39
212.344101 -436.407227 3667.356934 6.085630e-39
213.900223 -435.689026 3661.321289 5.993435e-39
215.344177 -434.757019 3653.489258 5.993435e-39
216.785812 -433.836700 3645.755371 5.993435e-39
218.271622 -433.020020 3638.892334 6.085630e-39
219.750366 -432.203491 3632.030518 6.085630e-39
221.194763 -431.333862 3624.722656 6.177826e-39
222.624573 -430.450745 3617.301514 6.177826e-39
224.050156 -429.574371 3609.936768 6.085630e-39
225.471466 -428.704437 3602.626221 6.177826e-39
226.848938 -427.766205 3594.741699 6.270022e-39
228.071777 -426.554077 3584.555664 6.270022e-39
229.284103 -425.342133 3574.371094 6.362217e-39
230.560516 -424.267609 3565.341309 6.362217e-39
231.835968 -423.208557 3556.441406 6.270022e-39
232.973053 -421.915619 3545.576416 6.270022e-39
234.012268 -420.467163 3533.404297 6.270022e-39
235.054047 -419.045929 3521.460693 6.177826e-39
236.119644 -417.688751 3510.055664 6.177826e-39
237.173248 -416.331451 3498.649414 6.362217e-39
238.037643 -414.665131 3484.646729 6.454413e-39
238.887329 -412.998627 3470.642090 6.454413e-39
239.724899 -411.336304 3456.672852 6.454413e-39
240.548782 -409.675476 3442.716064 6.454413e-39
168.156693 -433.759064 3661.115479 5.901239e-39
170.222656 -434.168396 3664.570557 5.809044e-39
172.335846 -434.687744 3668.954102 5.809044e-39
174.455063 -435.210754 3673.368652 5.809044e-39
176.592560 -435.767578 3678.068359 5.901239e-39
178.734924 -436.324310 3682.767578 5.809044e-39
180.905762 -436.938049 3687.947510 5.716848e-39
183.087921 -437.565887 3693.246826 5.716848e-39
185.237274 -438.103119 3697.781250 5.993435e-39
187.352615 -438.549683 3701.550537 5.993435e-39
189.461868 -438.973053 3705.124023 5.993435e-39
191.534592 -439.304138 3707.918457 5.993435e-39
193.610214 -439.635162 3710.712402 5.901239e-39
195.553421 -439.661926 3710.938477 5.993435e-39
197.481689 -439.654968 3710.879639 6.085630e-39
199.261826 -439.321503 3708.065186 6.085630e-39
200.939423 -438.770538 3703.414551 5.993435e-39
202.626770 -438.251129 3699.030762 5.993435e-39
204.344086 -437.805695 3695.270996 6.085630e-39
206.057449 -437.360199 3691.510742 6.085630e-39
207.712921 -436.801208 3686.792480 6.177826e-39
209.363434 -436.242096 3682.073486 6.085630e-39
210.975861 -435.614502 3676.776367 6.085630e-39
212.568405 -434.957489 3671.230957 6.085630e-39
214.094086 -434.176605 3664.639648 6.085630e-39
215.520370 -433.209656 3656.478516 6.085630e-39
216.944000 -432.254425 3648.415771 6.085630e-39
218.411911 -431.403198 3641.231201 6.085630e-39
219.872406 -430.552094 3634.047363 6.085630e-39
221.323135 -429.696564 3626.826416 6.085630e-39
222.765717 -428.839813 3619.594971 6.085630e-39
224.180786 -427.944885 3612.041504 6.085630e-39
225.567734 -427.011627 3604.164307 6.177826e-39
226.923569 -426.035370 3595.924316 6.270022e-39
228.178146 -424.886536 3586.227539 6.270022e-39
229.422714 -423.737793 3576.531982 6.362217e-39
230.720108 -422.704437 3567.809570 6.362217e-39
232.015625 -421.684082 3559.197510 6.270022e-39
233.172546 -420.429962 3548.612305 6.270022e-39
234.231430 -419.020264 3536.713623 6.270022e-39
235.286743 -417.626160 3524.947021 6.270022e-39
236.350800 -416.269043 3513.492188 6.270022e-39
237.402832 -414.911713 3502.035889 6.362217e-39
238.325333 -413.350433 3488.858154 6.454413e-39
239.234024 -411.789032 3475.678955 6.454413e-39
240.064697 -410.117737 3461.572510 6.454413e-39
164.488083 -432.227600 3664.286377 5.809044e-39
166.578217 -432.703003 3668.316650 5.809044e-39
168.653290 -433.128937 3671.927490 5.809044e-39
170.725708 -433.538544 3675.400146 5.809044e-39
172.792084 -433.923920 3678.667236 5.716848e-39
174.872375 -434.335388 3682.155762 5.809044e-39
177.052322 -434.982849 3687.644531 5.901239e-39
179.237946 -435.630188 3693.132324 5.901239e-39
181.362656 -436.117279 3697.261719 5.901239e-39
183.474731 -436.564087 3701.049805 5.901239e-39
185.600327 -437.033447 3705.028809 5.993435e-39
187.739746 -437.525360 3709.199219 5.993435e-39
189.869537 -437.985077 3713.096436 5.993435e-39
191.947021 -438.316071 3715.902588 5.993435e-39
194.027420 -438.647064 3718.708496 5.993435e-39
195.956467 -438.632690 3718.586670 5.993435e-39
197.868042 -438.579926 3718.139404 6.085630e-39
199.643051 -438.228363 3715.159180 6.085630e-39
201.323349 -437.677734 3710.490723 5.993435e-39
203.007172 -437.145050 3705.975098 5.993435e-39
204.706100 -436.654663 3701.817627 6.085630e-39
206.400665 -436.164185 3697.659424 5.993435e-39
208.015549 -435.515930 3692.164062 6.085630e-39
209.624695 -434.867676 3686.668213 6.085630e-39
211.210464 -434.183136 3680.864746 6.085630e-39
212.782516 -433.482941 3674.928711 6.177826e-39
214.296082 -432.677124 3668.097412 6.085630e-39
215.723236 -431.712585 3659.920410 6.085630e-39
217.147797 -430.759796 3651.843018 6.177826e-39
218.616653 -429.910706 3644.644531 6.085630e-39
220.078110 -429.061737 3637.447266 6.085630e-39
221.494019 -428.139252 3629.626709 6.085630e-39
222.892136 -427.198242 3621.649170 6.085630e-39
224.296158 -426.284210 3613.900391 6.085630e-39
225.706284 -425.396912 3606.378174 6.177826e-39
227.072021 -424.441284 3598.276611 6.177826e-39
228.281433 -423.211487 3587.850830 6.270022e-39
229.480087 -421.981903 3577.426514 6.362217e-39
230.773041 -420.944031 3568.627930 6.362217e-39
232.068695 -419.927643 3560.011475 6.270022e-39
233.225693 -418.678467 3549.421387 6.270022e-39
234.284698 -417.274384 3537.517822 6.270022e-39
235.374466 -415.946564 3526.260986 6.270022e-39
236.554443 -414.797455 3516.519287 6.362217e-39
237.724152 -413.648163 3506.775879 6.362217e-39
238.646713 -412.089600 3493.562988 6.362217e-39
239.555389 -410.530762 3480.347656 6.362217e-39
240.402023 -408.889832 3466.436523 6.454413e-39
241.213089 -407.213318 3452.223633 6.454413e-39
243.695511 -402.411652 3411.516357 6.454413e-39
244.652847 -401.070251 3400.144531 6.454413e-39
162.800034 -430.900360 3669.224365 5.716848e-39
164.919098 -431.448090 3673.888428 5.716848e-39
167.034088 -431.972717 3678.355713 5.809044e-39
169.149887 -432.487518 3682.739502 5.809044e-39
171.228775 -432.897461 3686.229980 5.716848e-39
173.248337 -433.150024 3688.380615 5.716848e-39
175.289703 -433.450958 3690.943359 5.809044e-39
177.512115 -434.188171 3697.220947 5.901239e-39
179.741013 -434.925293 3703.497559 5.901239e-39
181.819534 -435.286743 3706.575439 5.901239e-39
183.861572 -435.554199 3708.853027 5.901239e-39
185.963425 -435.956299 3712.276855 5.993435e-39
188.126907 -436.493134 3716.848389 5.993435e-39
190.277206 -436.988800 3721.068848 6.085630e-39
192.359467 -437.319733 3723.886963 6.085630e-39
194.444641 -437.650696 3726.705078 6.085630e-39
196.359497 -437.595490 3726.235107 6.085630e-39
198.254410 -437.497375 3725.399658 6.085630e-39
200.024292 -437.127930 3722.253662 6.085630e-39
201.707321 -436.577606 3717.567383 5.993435e-39
203.387589 -436.031799 3712.919678 5.993435e-39
205.068130 -435.496826 3708.364258 6.085630e-39
206.743896 -434.961792 3703.808350 5.901239e-39
208.318222 -434.225189 3697.536133 5.993435e-39
209.885971 -433.488495 3691.263184 6.085630e-39
211.445053 -432.747498 3684.953125 6.085630e-39
212.996613 -432.004486 3678.626465 6.177826e-39
214.498077 -431.174042 3671.554688 6.085630e-39
215.926117 -430.211945 3663.362549 6.085630e-39
217.351532 -429.261566 3655.269531 6.177826e-39
218.821396 -428.414642 3648.057861 6.085630e-39
220.283813 -427.567841 3640.847168 6.177826e-39
221.664932 -426.579041 3632.427246 6.177826e-39
223.018585 -425.554596 3623.703613 6.177826e-39
224.411514 -424.621613 3615.759277 6.177826e-39
225.844833 -423.779938 3608.592041 6.177826e-39
227.220474 -422.844788 3600.629150 6.177826e-39
228.384720 -421.534790 3589.474121 6.270022e-39
229.537476 -420.225006 3578.321045 6.362217e-39
230.825928 -419.182739 3569.445801 6.362217e-39
232.121750 -418.170410 3560.825439 6.270022e-39
233.278885 -416.926178 3550.230713 6.270022e-39
234.337921 -415.527618 3538.321533 6.270022e-39
235.462158 -414.265594 3527.574951 6.362217e-39
236.758041 -413.322662 3519.545898 6.362217e-39
238.045486 -412.379700 3511.516113 6.362217e-39
238.968079 -410.823792 3498.267334 6.362217e-39
239.876755 -409.267700 3485.016846 6.270022e-39
240.739288 -407.656830 3471.299805 6.362217e-39
241.573441 -406.022247 3457.380859 6.362217e-39
242.385574 -404.375061 3443.354980 6.454413e-39
243.171402 -402.708588 3429.164307 6.454413e-39
243.964844 -401.078857 3415.286621 6.454413e-39
244.945404 -399.778107 3404.210449 6.454413e-39
245.914551 -398.477539 3393.135742 6.454413e-39
156.868256 -428.437073 3664.489502 5.716848e-39
158.961014 -428.937714 3668.771240 5.809044e-39
163.173279 -429.974213 3677.636719 5.716848e-39
165.293121 -430.510132 3682.220459 5.809044e-39
167.409683 -431.025269 3686.626709 5.901239e-39
169.527328 -431.531555 3690.957031 5.809044e-39
171.619019 -431.961151 3694.631348 5.716848e-39
173.668289 -432.275635 3697.321289 5.809044e-39
175.734497 -432.624939 3700.308838 5.809044e-39
177.932709 -433.288086 3705.980957 5.901239e-39
180.136734 -433.951080 3711.651611 5.901239e-39
182.208664 -434.285065 3714.508301 5.901239e-39
184.248611 -434.536682 3716.660400 5.901239e-39
186.347397 -434.920349 3719.941895 5.993435e-39
188.506775 -435.436157 3724.353516 5.993435e-39
190.651642 -435.908234 3728.391357 6.085630e-39
192.723602 -436.205750 3730.936279 6.085630e-39
194.798172 -436.503235 3733.480469 6.085630e-39
196.709961 -436.433685 3732.885742 6.085630e-39
198.602585 -436.323364 3731.942139 5.993435e-39
200.354782 -435.909698 3728.404053 5.993435e-39
202.009521 -435.293945 3723.137207 5.993435e-39
203.663895 -434.689087 3717.963867 5.993435e-39
205.325119 -434.110107 3713.011719 6.085630e-39
206.981125 -433.530975 3708.058594 5.901239e-39
208.529572 -432.739349 3701.287598 5.993435e-39
210.070892 -431.947601 3694.515625 5.993435e-39
211.607529 -431.160675 3687.784668 6.177826e-39
213.138062 -430.375519 3681.069092 6.270022e-39
214.620575 -429.508301 3673.651611 6.177826e-39
216.033127 -428.517548 3665.177734 6.085630e-39
217.442780 -427.538513 3656.803955 6.177826e-39
218.896942 -426.663208 3649.317139 6.085630e-39
220.343323 -425.787903 3641.830811 6.085630e-39
221.711639 -424.778015 3633.192871 6.177826e-39
223.053162 -423.734222 3624.265381 6.177826e-39
224.434906 -422.783783 3616.135986 6.177826e-39
225.858002 -421.926392 3608.802490 6.177826e-39
227.229431 -420.987396 3600.770996 6.177826e-39
228.414383 -419.721100 3589.940186 6.270022e-39
229.588120 -418.454926 3579.110596 6.362217e-39
230.863922 -417.393677 3570.033447 6.362217e-39
232.143051 -416.355286 3561.152100 6.270022e-39
233.313370 -415.139771 3550.755615 6.270022e-39
234.406143 -413.806458 3539.351562 6.362217e-39
235.558762 -412.598755 3529.021973 6.362217e-39
236.869675 -411.684906 3521.205566 6.362217e-39
238.172409 -410.770966 3513.388428 6.362217e-39
239.162460 -409.335785 3501.113037 6.362217e-39
240.139633 -407.900360 3488.835938 6.362217e-39
241.027222 -406.335571 3475.451660 6.362217e-39
241.867523 -404.714874 3461.589844 6.362217e-39
242.678299 -403.069153 3447.513672 6.362217e-39
243.451248 -401.385193 3433.110596 6.454413e-39
244.231888 -399.738373 3419.024902 6.454413e-39
245.202042 -398.423340 3407.777344 6.454413e-39
246.160629 -397.108521 3396.531250 6.454413e-39
157.233459 -427.522888 3673.020996 5.716848e-39
159.315170 -427.979614 3676.945068 5.809044e-39
161.400970 -428.436462 3680.869873 5.809044e-39
163.520935 -428.972137 3685.472168 5.716848e-39
165.645721 -429.507874 3690.074951 5.809044e-39
167.755051 -429.991760 3694.232178 5.901239e-39
169.859955 -430.453491 3698.198975 6.085630e-39
171.966843 -430.909790 3702.119385 5.809044e-39
174.074600 -431.358185 3705.971680 5.901239e-39
176.189621 -431.814514 3709.892090 5.901239e-39
178.338531 -432.343140 3714.433594 5.809044e-39
180.492172 -432.871704 3718.974854 5.901239e-39
182.572296 -433.214691 3721.921631 5.901239e-39
184.635742 -433.511230 3724.469482 5.993435e-39
186.739197 -433.894623 3727.763428 5.993435e-39
188.883911 -434.364990 3731.804443 5.993435e-39
191.013596 -434.791626 3735.469727 6.085630e-39
193.069565 -435.043518 3737.633789 6.085630e-39
195.127747 -435.295319 3739.797363 6.085630e-39
197.040665 -435.221313 3739.161377 5.993435e-39
198.936371 -435.111115 3738.214600 5.993435e-39
200.666260 -434.643829 3734.199951 5.993435e-39
202.280975 -433.938477 3728.140137 5.993435e-39
203.901047 -433.257935 3722.293213 5.993435e-39
205.542603 -432.635345 3716.944336 6.085630e-39
207.178513 -432.012665 3711.594727 5.993435e-39
208.706573 -431.178680 3704.429443 6.085630e-39
210.227112 -430.344513 3697.262939 6.085630e-39
211.742798 -429.515717 3690.142090 6.177826e-39
213.252136 -428.688934 3683.039307 6.177826e-39
214.713181 -427.780762 3675.236572 6.085630e-39
216.104034 -426.750000 3666.380859 6.085630e-39
217.491653 -425.730957 3657.625977 6.085630e-39
218.923813 -424.816010 3649.765137 6.085630e-39
220.347885 -423.901245 3641.906006 6.085630e-39
221.711639 -422.887085 3633.192871 6.085630e-39
223.053177 -421.847961 3624.265625 6.177826e-39
224.423630 -420.880585 3615.954346 6.177826e-39
225.823975 -419.984833 3608.258789 6.177826e-39
227.185898 -419.033051 3600.081299 6.177826e-39
228.416290 -417.856171 3589.970459 6.270022e-39
229.636261 -416.679504 3579.861084 6.270022e-39
230.896286 -415.593842 3570.533936 6.270022e-39
232.152390 -414.518494 3561.295166 6.177826e-39
233.340851 -413.340424 3551.173828 6.270022e-39
234.479965 -412.094116 3540.466309 6.362217e-39
235.658707 -410.936340 3530.519287 6.362217e-39
236.946716 -409.985535 3522.350830 6.362217e-39
238.226181 -409.034698 3514.181641 6.270022e-39
239.309067 -407.763397 3503.259277 6.362217e-39
240.380478 -406.491882 3492.335205 6.362217e-39
241.296555 -404.978729 3479.334961 6.362217e-39
242.136719 -403.361694 3465.442627 6.270022e-39
242.947296 -401.719635 3451.334961 6.362217e-39
243.719971 -400.039490 3436.900146 6.454413e-39
244.498016 -398.392578 3422.750732 6.454413e-39
245.445190 -397.042999 3411.156250 6.454413e-39
246.380386 -395.693665 3399.563477 6.546609e-39
157.557709 -426.488861 3680.595215 5.716848e-39
159.637604 -426.928253 3684.387207 5.809044e-39
161.721497 -427.367676 3688.179443 5.716848e-39
163.846069 -427.903076 3692.800049 5.809044e-39
165.975464 -428.438538 3697.420898 5.809044e-39
168.080917 -428.900574 3701.408447 5.993435e-39
170.178040 -429.331177 3705.124268 6.177826e-39
172.296738 -429.805939 3709.221436 5.809044e-39
174.446594 -430.347015 3713.891113 5.809044e-39
176.596924 -430.877411 3718.468262 5.809044e-39
178.712540 -431.312500 3722.223389 5.901239e-39
180.832047 -431.747589 3725.978027 5.993435e-39
182.923706 -432.107635 3729.085449 5.901239e-39
185.010590 -432.448975 3732.031006 5.993435e-39
187.121567 -432.838959 3735.396484 5.993435e-39
189.257339 -433.277679 3739.182617 6.085630e-39
191.377777 -433.672699 3742.591553 6.085630e-39
193.423782 -433.892822 3744.491211 6.085630e-39
195.471786 -434.112976 3746.391113 5.993435e-39
197.386581 -434.035828 3745.725586 5.993435e-39
199.285522 -433.925720 3744.775391 5.993435e-39
200.996796 -433.413086 3740.351074 5.993435e-39
202.577881 -432.632202 3733.612305 5.993435e-39
204.166260 -431.881653 3727.134766 5.993435e-39
205.781769 -431.201996 3721.269531 6.085630e-39
207.391129 -430.522278 3715.403564 6.085630e-39
208.898819 -429.646057 3707.841797 6.177826e-39
210.398605 -428.769714 3700.279053 6.177826e-39
211.897980 -427.908478 3692.846436 6.177826e-39
213.392776 -427.053528 3685.468262 6.177826e-39
214.836441 -426.112427 3677.346680 6.177826e-39
216.205704 -425.041656 3668.105957 6.177826e-39
217.572037 -423.983948 3658.977783 6.177826e-39
218.989014 -423.042389 3650.852295 6.085630e-39
220.397598 -422.101013 3642.728027 6.177826e-39
221.753021 -421.074677 3633.870850 6.177826e-39
223.087860 -420.027008 3624.829346 6.177826e-39
224.447189 -419.042572 3616.333740 6.177826e-39
225.831711 -418.121185 3608.382324 6.177826e-39
227.187119 -417.161560 3600.100586 6.177826e-39
228.449402 -416.047974 3590.490479 6.270022e-39
229.701736 -414.934540 3580.881592 6.270022e-39
230.969482 -413.866638 3571.665527 6.177826e-39
232.230530 -412.803894 3562.494141 6.177826e-39
233.432037 -411.652954 3552.561523 6.270022e-39
234.589722 -410.443451 3542.123535 6.362217e-39
235.776886 -409.303955 3532.289795 6.362217e-39
237.049057 -408.328583 3523.872070 6.362217e-39
238.312378 -407.353027 3515.453125 6.362217e-39
239.439270 -406.160889 3505.165039 6.454413e-39
240.555344 -404.968597 3494.875488 6.454413e-39
241.504425 -403.515167 3482.332520 6.362217e-39
242.372818 -401.949585 3468.821533 6.362217e-39
243.194839 -400.330811 3454.851562 6.362217e-39
243.953171 -398.631744 3440.188721 6.454413e-39
244.715179 -396.963409 3425.790771 6.454413e-39
245.632248 -395.568878 3413.756104 6.546609e-39
246.536896 -394.174530 3401.722900 6.546609e-39
157.786697 -425.190338 3685.944580 5.716848e-39
159.886414 -425.673035 3690.129150 5.716848e-39
161.990494 -426.155792 3694.314209 5.716848e-39
164.118958 -426.690552 3698.950195 5.716848e-39
166.252258 -427.225433 3703.586914 5.809044e-39
168.361496 -427.686920 3707.587402 5.901239e-39
170.462418 -428.117035 3711.315918 5.901239e-39
172.584946 -428.591156 3715.426270 5.716848e-39
174.738785 -429.131622 3720.111572 5.716848e-39
176.893082 -429.661438 3724.704346 5.809044e-39
179.012558 -430.096069 3728.472168 5.993435e-39
181.135925 -430.530609 3732.239258 6.085630e-39
183.246765 -430.926453 3735.670898 5.993435e-39
185.356949 -431.312531 3739.017822 5.993435e-39
187.482010 -431.724823 3742.591553 6.085630e-39
189.622284 -432.163269 3746.392578 5.993435e-39
191.747131 -432.558014 3749.814697 6.085630e-39
193.797287 -432.778015 3751.721680 6.085630e-39
195.849411 -432.997955 3753.628662 6.085630e-39
197.767853 -432.920929 3752.960938 5.993435e-39
199.670364 -432.810883 3752.006836 6.085630e-39
201.371902 -432.271576 3747.331543 6.085630e-39
202.934021 -431.446136 3740.175781 6.085630e-39
204.496719 -430.637695 3733.167480 6.177826e-39
206.071426 -429.869415 3726.507568 6.177826e-39
207.639145 -429.101105 3719.846680 6.177826e-39
209.126526 -428.182465 3711.883301 6.177826e-39
210.605576 -427.263763 3703.918945 6.177826e-39
212.099411 -426.391388 3696.356689 6.177826e-39
213.595200 -425.538666 3688.964355 6.177826e-39
215.031006 -424.582642 3680.676758 6.177826e-39
216.378860 -423.471405 3671.043457 6.177826e-39
217.725632 -422.377533 3661.560791 6.270022e-39
219.143295 -421.438934 3653.424316 6.270022e-39
220.552536 -420.500458 3645.288574 6.270022e-39
221.890625 -419.443481 3636.125732 6.270022e-39
223.203262 -418.356689 3626.704346 6.270022e-39
224.551559 -417.354370 3618.015381 6.270022e-39
225.936478 -416.436279 3610.056396 6.177826e-39
227.292282 -415.480072 3601.767090 6.085630e-39
228.554855 -414.370483 3592.148193 6.177826e-39
229.807495 -413.261017 3582.530518 6.270022e-39
231.137482 -412.307404 3574.263428 6.177826e-39
232.468735 -411.371216 3566.147949 6.270022e-39
233.671326 -410.224091 3556.203369 6.270022e-39
234.782944 -408.936462 3545.041016 6.362217e-39
235.937576 -407.743256 3534.697266 6.362217e-39
237.210236 -406.770905 3526.268066 6.454413e-39
238.474030 -405.798401 3517.837646 6.454413e-39
239.531326 -404.492065 3506.512695 6.454413e-39
240.576752 -403.185516 3495.186523 6.454413e-39
241.569519 -401.811005 3483.270996 6.454413e-39
242.531998 -400.407013 3471.099854 6.454413e-39
243.392578 -398.856720 3457.660645 6.454413e-39
244.103897 -397.086456 3442.314209 6.454413e-39
244.818344 -395.347015 3427.235107 6.546609e-39
245.688919 -393.882996 3414.543701 6.546609e-39
246.546402 -392.419189 3401.854248 6.638804e-39
247.316681 -390.838501 3388.150879 6.638804e-39
248.053925 -389.228302 3374.192383 6.638804e-39
155.927429 -423.432495 3687.343018 5.624652e-39
158.015656 -423.886108 3691.293213 5.716848e-39
160.135178 -424.411774 3695.870605 5.716848e-39
162.259476 -424.937469 3700.448730 5.716848e-39
164.391800 -425.471649 3705.100098 5.624652e-39
166.529007 -426.005829 3709.752197 5.809044e-39
168.642075 -426.466766 3713.766113 5.716848e-39
170.746780 -426.896362 3717.507080 5.809044e-39
172.873199 -427.369965 3721.631348 5.809044e-39
175.030960 -427.909790 3726.332031 5.901239e-39
177.189240 -428.438934 3730.940186 5.809044e-39
179.312546 -428.873016 3734.720459 5.993435e-39
181.439804 -429.307129 3738.500488 5.993435e-39
183.569778 -429.738403 3742.256104 5.993435e-39
185.703339 -430.168884 3746.004883 5.993435e-39
187.842438 -430.603180 3749.786865 5.993435e-39
189.987198 -431.041321 3753.602295 5.993435e-39
192.116455 -431.435791 3757.037354 6.085630e-39
194.170746 -431.655640 3758.951660 6.085630e-39
196.227020 -431.875427 3760.865967 6.085630e-39
198.149094 -431.798462 3760.195557 6.085630e-39
200.055176 -431.688507 3759.238037 6.085630e-39
201.746964 -431.122711 3754.311035 6.085630e-39
203.290100 -430.253143 3746.738525 6.177826e-39
204.827179 -429.387451 3739.199951 6.270022e-39
206.361069 -428.531403 3731.745361 6.177826e-39
207.887131 -427.675201 3724.289551 6.177826e-39
209.354233 -426.714691 3715.925049 6.177826e-39
210.812561 -425.753998 3707.559082 6.177826e-39
212.300781 -424.870575 3699.865967 6.177826e-39
213.797607 -424.020111 3692.460205 6.177826e-39
215.225555 -423.049438 3684.007080 6.177826e-39
216.551987 -421.898102 3673.980957 6.177826e-39
217.879242 -420.768463 3664.144043 6.270022e-39
219.297531 -419.832794 3655.995850 6.270022e-39
220.707428 -418.897186 3647.848633 6.270022e-39
222.028183 -417.809875 3638.379883 6.270022e-39
223.318649 -416.684418 3628.579102 6.270022e-39
224.655914 -415.664398 3619.696777 6.270022e-39
226.041260 -414.749603 3611.730469 6.270022e-39
227.397446 -413.796814 3603.433350 6.177826e-39
228.660309 -412.691223 3593.805664 6.270022e-39
229.913269 -411.585785 3584.179199 6.270022e-39
231.305481 -410.745453 3576.861328 6.270022e-39
232.706894 -409.934753 3569.801514 6.270022e-39
233.910599 -408.791351 3559.844727 6.270022e-39
234.976181 -407.426422 3547.958740 6.270022e-39
236.098251 -406.180023 3537.104492 6.454413e-39
237.371384 -405.210724 3528.663818 6.546609e-39
238.635666 -404.241302 3520.221924 6.546609e-39
239.623398 -402.821808 3507.860596 6.546609e-39
240.598129 -401.402100 3495.497314 6.546609e-39
241.634521 -400.105743 3484.208496 6.546609e-39
242.691162 -398.862000 3473.377686 6.546609e-39
243.590286 -397.379669 3460.469238 6.546609e-39
244.254593 -395.538849 3444.439209 6.546609e-39
244.921539 -393.729126 3428.679443 6.546609e-39
245.745605 -392.196320 3415.331543 6.638804e-39
246.555939 -390.663788 3401.985596 6.638804e-39
247.316696 -389.075104 3388.151123 6.638804e-39
248.053909 -387.472137 3374.192139 6.638804e-39
248.812912 -385.925476 3360.723633 6.638804e-39
156.084641 -421.938354 3691.060791 5.624652e-39
158.175751 -422.392487 3695.033203 5.624652e-39
160.299683 -422.922241 3699.667725 5.624652e-39
162.428467 -423.452057 3704.302490 5.716848e-39
164.578262 -424.023621 3709.302246 5.624652e-39
166.733261 -424.595184 3714.302246 5.716848e-39
168.864563 -425.093964 3718.665527 5.716848e-39
170.987885 -425.561615 3722.756348 5.809044e-39
173.127045 -426.057739 3727.096436 5.809044e-39
175.288315 -426.596649 3731.810791 5.809044e-39
177.450073 -427.124969 3736.432373 5.809044e-39
179.576782 -427.558380 3740.223877 5.993435e-39
181.707413 -427.991730 3744.014648 5.901239e-39
183.842743 -428.426758 3747.820557 5.901239e-39
185.982162 -428.862152 3751.629395 5.901239e-39
188.125961 -429.298553 3755.446533 5.901239e-39
190.274261 -429.736053 3759.273926 5.901239e-39
192.407013 -430.129883 3762.719238 5.993435e-39
194.464569 -430.349426 3764.639648 6.085630e-39
196.524094 -430.568909 3766.559570 6.085630e-39
198.432541 -430.456238 3765.574219 6.085630e-39
200.322784 -430.306732 3764.266357 6.085630e-39
202.007431 -429.722778 3759.157959 6.177826e-39
203.549347 -428.849304 3751.516846 6.177826e-39
205.078842 -427.966522 3743.794189 6.177826e-39
206.589890 -427.062164 3735.883301 6.177826e-39
208.092667 -426.157776 3727.971680 6.085630e-39
209.558044 -425.194183 3719.542480 6.177826e-39
211.014587 -424.230530 3711.112305 6.085630e-39
212.476196 -423.294403 3702.923340 6.085630e-39
213.935165 -422.369934 3694.835938 6.177826e-39
215.339157 -421.354309 3685.951660 6.177826e-39
216.663208 -420.201569 3675.867676 6.177826e-39
217.986374 -419.067383 3665.945801 6.177826e-39
219.385590 -418.097778 3657.463623 6.270022e-39
220.776047 -417.128296 3648.982910 6.177826e-39
222.122208 -416.092377 3639.920898 6.177826e-39
223.449890 -415.039673 3630.711914 6.270022e-39
224.796417 -414.039276 3621.960693 6.362217e-39
226.162369 -413.091034 3613.665527 6.362217e-39
227.506775 -412.119415 3605.166016 6.270022e-39
228.790009 -411.053802 3595.843994 6.270022e-39
230.063629 -409.988312 3586.523438 6.362217e-39
231.411850 -409.071869 3578.506348 6.362217e-39
232.761246 -408.172119 3570.635498 6.362217e-39
233.964676 -407.032654 3560.667725 6.362217e-39
235.065308 -405.733673 3549.304443 6.362217e-39
236.212341 -404.534454 3538.813721 6.454413e-39
237.485825 -403.568665 3530.364990 6.546609e-39
238.750427 -402.602661 3521.914795 6.546609e-39
239.749908 -401.207825 3509.712646 6.546609e-39
240.736603 -399.812775 3497.509033 6.454413e-39
241.742004 -398.469513 3485.758301 6.454413e-39
242.748611 -397.148224 3474.199951 6.546609e-39
243.631226 -395.645111 3461.050781 6.454413e-39
244.330582 -393.868652 3445.510742 6.454413e-39
245.032974 -392.122955 3430.239502 6.546609e-39
245.891983 -390.651306 3417.365967 6.638804e-39
246.737701 -389.179871 3404.493896 6.638804e-39
247.489258 -387.581909 3390.515137 6.638804e-39
248.205688 -385.952026 3376.256836 6.638804e-39
248.935364 -384.365417 3362.377686 6.638804e-39
156.232773 -420.415894 3694.563477 5.624652e-39
158.326019 -420.868774 3698.543457 5.624652e-39
160.452164 -421.397156 3703.186768 5.624652e-39
162.583160 -421.925537 3707.830322 5.624652e-39
164.752319 -422.539490 3713.225586 5.716848e-39
166.927155 -423.153473 3718.621338 5.809044e-39
169.078735 -423.695221 3723.381836 5.716848e-39
171.222794 -424.206024 3727.870850 5.809044e-39
173.375946 -424.727631 3732.454590 5.716848e-39
175.540649 -425.265686 3737.183105 5.809044e-39
177.705841 -425.793121 3741.818115 5.901239e-39
179.835892 -426.225830 3745.620605 5.993435e-39
181.969864 -426.658447 3749.422363 5.993435e-39
184.108536 -427.092743 3753.239014 5.901239e-39
186.251312 -427.527435 3757.058838 5.993435e-39
188.398529 -427.963104 3760.887451 5.901239e-39
190.550186 -428.399841 3764.725586 5.901239e-39
192.686279 -428.793030 3768.180908 5.993435e-39
194.746979 -429.012238 3770.106934 5.993435e-39
196.809647 -429.231293 3772.032471 6.177826e-39
198.701996 -429.078278 3770.687744 6.177826e-39
200.573593 -428.883942 3768.979492 6.085630e-39
202.251526 -428.283142 3763.700195 6.085630e-39
203.794815 -427.411560 3756.040771 6.085630e-39
205.319214 -426.517334 3748.182373 6.085630e-39
206.810028 -425.570770 3739.864014 6.085630e-39
208.292099 -424.624054 3731.544434 6.085630e-39
209.758438 -423.663055 3723.099365 6.085630e-39
211.215912 -422.701965 3714.653076 6.085630e-39
212.647888 -421.707672 3705.915527 6.085630e-39
214.063461 -420.699005 3697.051514 6.085630e-39
215.441132 -419.634521 3687.697021 6.177826e-39
216.765549 -418.485992 3677.604004 6.085630e-39
218.086853 -417.351685 3667.635498 6.085630e-39
219.464188 -416.343292 3658.773926 6.177826e-39
220.832352 -415.335052 3649.913574 6.177826e-39
222.210037 -414.361725 3641.360107 6.177826e-39
223.583435 -413.396912 3632.881592 6.177826e-39
224.942108 -412.421295 3624.308105 6.270022e-39
226.285797 -411.434692 3615.637695 6.270022e-39
227.616699 -410.441284 3606.907959 6.270022e-39
228.923157 -409.420410 3597.936768 6.270022e-39
230.220367 -408.399689 3588.966797 6.362217e-39
231.509399 -407.381042 3580.014893 6.362217e-39
232.789368 -406.362793 3571.066650 6.362217e-39
233.992310 -405.227295 3561.088135 6.362217e-39
235.139557 -404.013977 3550.425537 6.362217e-39
236.319763 -402.875763 3540.422852 6.454413e-39
237.593567 -401.913483 3531.966553 6.454413e-39
238.858490 -400.951050 3523.508789 6.546609e-39
239.881348 -399.600067 3511.636719 6.546609e-39
240.891739 -398.248932 3499.762939 6.546609e-39
241.855545 -396.841583 3487.395508 6.454413e-39
242.791504 -395.409882 3474.813721 6.454413e-39
243.649719 -393.873627 3461.313477 6.454413e-39
244.395874 -392.180176 3446.431641 6.362217e-39
245.145599 -390.517029 3431.816162 6.454413e-39
246.051178 -389.124481 3419.578369 6.546609e-39
